# .PCD v0.7 - Point Cloud Data file format
VERSION 0.7
FIELDS x y z normal_x normal_y normal_z
SIZE 4 4 4 4 4 4
TYPE F F F F F F
COUNT 1 1 1 1 1 1
WIDTH 598
HEIGHT 1
VIEWPOINT 0 0 0 1 0 0 0
POINTS 598
DATA ascii
0.1079449803 -0.06130025908 1.057831287 0.4736246467 0.1199244186 0.8725237846
0.1085271463 -0.06106988713 1.057837844 -0.8926169276 -0.3950588703 0.2171713412
0.1096519828 -0.06071197614 1.057879686 -0.5736423135 -0.8096631765 -0.1240166798
0.1100985333 -0.06048780307 1.057940125 -0.7077902555 0.6723414063 0.2167714983
0.111198701 -0.06016302109 1.058103204 0.2421098053 -0.280018568 0.9289630651
0.1118298694 -0.05988717079 1.058020711 -0.7409950495 -0.3216296434 -0.5894749761
0.1130247489 -0.059556216 1.058172464 -0.08629997075 -0.9912273884 -0.1001026928
0.1134431809 -0.05929678306 1.058272123 0.4808476567 0.3482420444 0.8046819568
0.1145591214 -0.05888930336 1.05824542 0.468454808 0.7225865126 -0.5083491802
0.1151650995 -0.05868519098 1.05829227 -0.005236407742 0.3336961567 -0.942666173
0.1162252575 -0.05828329176 1.058442831 -0.8109343052 0.5733471513 -0.1168703064
0.1167818457 -0.05811037868 1.058474779 0.9759041071 0.2147396654 -0.03870465606
0.117843926 -0.05774866045 1.058492303 0.02104121633 0.255258888 -0.9666438103
0.118544586 -0.05749412999 1.058615327 -0.002517885063 0.9041476846 -0.4272126555
0.1195493117 -0.05708368123 1.058786035 -0.472352922 0.8794518709 0.0587111935
0.1200619414 -0.05691491812 1.058741331 -0.6945889592 0.5262895823 -0.4904747605
0.1212530211 -0.05657707155 1.058802128 0.5365383625 -0.5696533322 -0.6225926876
0.1219536588 -0.05622300506 1.05896759 0.1296927482 0.9596046805 0.2496769577
0.123387754 -0.05575527623 1.059032559 -0.2726241946 0.8275017738 -0.4908328056
0.1236066297 -0.05563107505 1.059052467 -0.7356416583 0.5149892569 -0.4400197268
0.1248026639 -0.05531740189 1.059171796 0.6911635995 -0.7212432027 -0.04583809897
0.1255497187 -0.05495427549 1.059291363 -0.125505209 0.9689205289 0.2131699175
0.1268002093 -0.0544761084 1.059388161 -0.3642332256 0.9115593433 0.1907711327
0.1271487176 -0.05432480574 1.059328198 -0.6897082329 0.5422151089 -0.4799014628
0.128308177 -0.0538075231 1.059382915 -0.08650479466 0.9818429351 -0.1688232124
0.1289078295 -0.0535862036 1.059580684 -0.1578730047 0.6386427879 0.7531344295
0.1299540699 -0.05314675346 1.059673309 -0.2802403867 0.5857905149 0.7604700327
0.1302630156 -0.05296675861 1.059659481 -0.6049661636 0.4812831283 0.6343361735
0.1311956346 -0.05266048759 1.059772968 0.1584562361 -0.2832458019 0.9458664656
0.1318484843 -0.05228877068 1.059760451 -0.1604375541 0.9857274294 0.05100061744
0.1329547912 -0.05190999806 1.059933782 0.01821639203 -0.3620081246 0.9319969416
0.1332234144 -0.05171863362 1.059876204 -0.7642722726 0.6126291156 0.2014289498
0.1342073083 -0.05142873526 1.059922218 0.5203555226 -0.8506763577 -0.07469914109
0.1348515153 -0.0509971939 1.060066342 -0.6972614527 0.3113693595 0.6456590295
0.1360534728 -0.05048684403 1.060164809 0.2950304151 -0.8350536227 0.4643732309
0.1362865418 -0.05025034398 1.060148954 -0.6715391278 0.7132574916 0.2007458657
0.1372990757 -0.04975412041 1.060127735 -0.1030806154 0.2829870582 -0.953568399
0.1380181462 -0.04936238751 1.060384512 -0.05100686476 -0.4288417399 0.901938498
0.1391395628 -0.04882562906 1.060378551 0.3657942414 -0.924944818 -0.103303805
0.1393953562 -0.04853173718 1.06042099 -0.6727957726 0.7382995486 0.04753670469
0.140451178 -0.04795766622 1.060554981 -0.3415984809 0.9349725246 0.09558698535
0.1411051005 -0.04772822559 1.060629368 0.01349434629 -0.9291456342 0.3694676459
0.1422473937 -0.04704324901 1.060591102 -0.09484113008 0.2657305896 -0.9593709111
0.1424357593 -0.04685797915 1.060721755 -0.5843905807 0.7799055576 0.2241315395
0.1434871256 -0.04609428719 1.060741425 -0.6179283857 0.7537178397 -0.2237721235
0.1439985633 -0.04573767632 1.060855389 -0.9506914616 -0.2578397393 -0.1723498404
0.1451533288 -0.04506536201 1.060910463 0.4080878794 -0.6609413028 -0.6297783852
0.1454177797 -0.04473952949 1.061061859 -0.03122646548 0.7106704712 0.7028317451
0.1459820867 -0.04435294867 1.061087489 -0.1609486938 0.9574339986 0.2396154255
0.1469213068 -0.04370230436 1.06108582 -0.07669205219 0.5346269608 -0.8416010737
0.147880733 -0.04302665591 1.061195731 -0.4638814628 0.8544672728 -0.2338798493
0.1483470947 -0.04276533052 1.061333418 0.9269821644 0.04407363757 0.3725070655
0.1489237547 -0.042286098 1.06141293 -0.5753709078 -0.3589974046 0.7348940969
0.1498107612 -0.04144380242 1.061332464 -0.08044089377 0.2123994231 -0.9738663435
0.1505025476 -0.04063415155 1.061135054 -0.5877437592 0.6163870692 0.5240460634
0.1509346366 -0.04041176662 1.061142325 0.9025346041 -0.3773154914 -0.2075191736
0.1513605565 -0.03991152719 1.061177492 -0.6914333701 -0.7128092051 -0.1175715327
0.1522472203 -0.03913550824 1.061178923 -0.5025683045 -0.4531255662 -0.7362760305
0.1526579708 -0.0388391912 1.0613662 -0.4195687473 -0.07777438313 0.9043856263
0.1535285413 -0.03801606596 1.061367631 0.3414082229 0.9296351671 0.1386316717
0.1540201902 -0.03760173172 1.061408281 -0.1444859803 0.9836388826 0.107602708
0.1549496055 -0.03684953228 1.061389804 0.0009646558901 -0.4139099121 -0.9103173018
0.1553059965 -0.03651734069 1.061552405 0.8266765475 0.5397893786 0.1588502079
0.1561335325 -0.03573117778 1.061740398 -0.5580599904 0.2586979568 -0.7884443402
0.1565726846 -0.03522307053 1.061951518 -0.176236257 0.9266101718 -0.3321660459
0.1572839916 -0.03438640013 1.061989188 -0.9081863761 0.3832084537 -0.168370828
0.1576523632 -0.03398861736 1.061993003 0.595595777 0.6293870807 -0.4991367161
0.1583676189 -0.03320812806 1.062017798 -0.2555711567 0.1356911361 -0.9572206736
0.1588163078 -0.03262336552 1.062120795 -0.2651832402 0.8762516975 -0.4023194313
0.1594899446 -0.0317963846 1.062237263 -0.956428647 0.2919175029 -0.005329235457
0.1598475128 -0.03140682355 1.062152147 -0.2790983021 0.2454567105 -0.9283615351
0.1606248468 -0.0304770153 1.062208891 0.7267925143 0.339477092 -0.5970995426
0.1609428972 -0.02992613986 1.062392592 -0.3898489177 0.5965426564 0.7015374303
0.16170834 -0.0289242249 1.062343121 -0.6968361139 0.5565247536 -0.4524374008
0.1618808061 -0.02867163718 1.062344313 -0.8338235617 0.2775537968 -0.4771813154
0.1626027673 -0.02768896148 1.062409997 0.9377786517 0.3441069424 0.04649472237
0.1629380137 -0.02712633088 1.062490225 -0.4571838975 0.8354384303 0.3050007522
0.1637215912 -0.0260444358 1.062538147 -0.7936279774 0.5603958964 0.2368776798
0.1638252586 -0.02584894001 1.062528968 -0.9870691299 0.07020011544 0.144105643
0.1645127237 -0.02487348579 1.062541842 -0.49973616 0.8660702705 -0.01363659929
0.1649303436 -0.02428714186 1.062691689 -0.5619221926 0.2923626304 0.7738007307
0.1656286865 -0.02291757427 1.062721968 -0.6075299978 0.3088224828 0.7318031788
0.1657196581 -0.02268417925 1.062716722 -0.5762153268 0.2368079573 0.7822389603
0.1663380861 -0.02165406942 1.062715411 0.8531387448 -0.2859098613 0.4363597631
0.1666123122 -0.02081041969 1.062738776 -0.8077918291 0.5868282914 0.05572135746
0.1673978716 -0.01942451857 1.06281805 0.2700862885 -0.1154392585 0.9558907747
0.1674427986 -0.01921546087 1.062803626 -0.6540600061 0.15430668 0.7405369878
0.1680496931 -0.01815713756 1.062680125 0.6876032948 -0.2575811446 -0.6788620949
0.1683259308 -0.01734302752 1.062808514 -0.8289868236 -0.431109339 0.3562664688
0.1691500843 -0.01590263471 1.062845707 0.8395816684 -0.2976371944 0.4544389248
0.1691159606 -0.01562844217 1.062827706 -0.9758706689 0.198951304 0.08997105807
0.1695447415 -0.01453593001 1.062810183 -0.7234629393 0.6897428632 -0.02925958298
0.1698080301 -0.01397692505 1.062889695 -0.1621688008 -0.5081691742 0.8458518982
0.1704040468 -0.01272636559 1.062785983 0.9291179776 -0.3604954183 -0.08235782385
0.1703617722 -0.01257659122 1.062751293 -0.8403914571 0.2648022175 -0.4728869796
0.1707700491 -0.0114072999 1.062761664 -0.9672446847 0.2013661116 -0.1545620114
0.1710555702 -0.01082930341 1.062846184 0.1490419507 -0.9155867696 0.373480022
0.1715843529 -0.009533040226 1.062700987 -0.2641425729 0.0638711974 -0.9623664021
0.171600014 -0.009394185618 1.062875032 -0.6439219713 0.2584274709 0.7201248407
0.1719801575 -0.008145212196 1.062773108 -0.9597052932 0.2725352645 -0.06848537177
0.1721577793 -0.007527713664 1.06271565 -0.6911600828 -0.5108757019 -0.5111786723
0.1726433188 -0.006180679891 1.062681079 0.7210607529 -0.2329937667 -0.6525222659
0.172605738 -0.005879744887 1.062770486 -0.3086964488 0.9239991307 0.2256812304
0.1727791727 -0.005272015464 1.062809467 -0.57632792 0.4927503467 0.6519534588
0.1731204391 -0.00417229021 1.062640429 -0.2633067369 0.0331463702 -0.964142561
0.1733844131 -0.003049747087 1.062691092 -0.8957951069 0.4149622023 -0.159240678
0.1735524535 -0.002592049539 1.062782407 0.1935316771 0.5347563624 0.8225454092
0.173696354 -0.001994770486 1.062732577 -0.1889287531 -0.9359815121 0.2970600128
0.1740588248 -0.0008346773684 1.062661767 0.5755959153 -0.8105638623 -0.1080535501
0.1740914434 -0.0003337082453 1.062675595 -0.9297606945 -0.2455589324 0.2743097842
0.1743744612 0.0007811764372 1.062720537 0.3937098682 0.1492062956 0.9070447087
0.1744543165 0.001456204336 1.062569141 -0.1177132353 -0.8526334763 -0.5090773106
0.1747763902 0.002645364497 1.062589765 0.8032181263 -0.5895242095 -0.08545020968
0.1747686267 0.003139910521 1.062645435 -0.01971650682 0.6666826606 0.7450808287
0.1749797612 0.004290191922 1.062500954 -0.4096154571 0.7277725339 -0.5500566959
0.1751119792 0.004911364522 1.062484145 -0.3411139548 0.07890575379 -0.9367043972
0.1753077954 0.006026627496 1.062523603 -0.9106779099 -0.4108979702 -0.04276272655
0.1754412651 0.006588860415 1.062497616 0.306450516 0.9427051544 -0.1318907738
0.1756339967 0.007738017011 1.062405586 -0.2584977746 0.045125328 -0.9649572968
0.1757106781 0.008484061807 1.062462211 -0.8278324604 0.3549351394 -0.4344127476
0.175775528 0.009557462297 1.062521935 -0.9953467846 -0.05090077221 0.08181682974
0.1758400053 0.01004809421 1.062421441 -0.7634869814 -0.4741501212 -0.4384852052
0.1760419458 0.01117473748 1.062353134 0.7343664169 0.1943753809 -0.6503263116
0.1760226041 0.01190703828 1.062438369 -0.7801774144 0.581977427 0.2294023633
0.1762104481 0.01328775194 1.062346458 -0.8763477206 0.06260249019 -0.4775935113
0.1761915386 0.01352032926 1.062340975 -0.7726627588 -0.5051846504 -0.3844224215
0.1764185131 0.01464438252 1.062330723 0.9404028654 0.3297323883 -0.08318002522
0.1764045805 0.01544583961 1.062365055 -0.9464146495 0.2411982715 0.2147618383
0.1764412373 0.01685610972 1.062334538 -0.9736750126 0.05346014723 0.2215830088
0.1764442921 0.01725025475 1.06224978 -0.7808915973 -0.4178442061 -0.4643431604
0.1764157563 0.01856533624 1.062204838 -0.950093627 0.2384829074 -0.201117292
0.1764282137 0.0192850735 1.062332392 -0.6524054408 0.1587885171 0.7410488129
0.1763993204 0.02052242309 1.062299252 -0.644875586 0.0327739045 0.7635846138
0.176343739 0.02090221457 1.062247157 -0.6659306288 -0.2939154208 0.685675025
0.1763978302 0.02197534032 1.062250972 0.3279961646 0.1362313032 0.9348045588
0.1762885153 0.02277671546 1.062157631 -0.9751425982 0.2180504799 0.0393820554
0.1763289124 0.02407607622 1.062195539 0.3519108593 0.0306917429 0.9355302453
0.1762217283 0.02443834767 1.062097669 -0.8268117309 -0.4928300977 0.2711105645
0.1762362272 0.02553399839 1.062019467 0.9689791203 0.2189762741 -0.1145810336
0.176030159 0.02627969533 1.06208086 -0.5449629426 -0.4470505416 0.7093385458
0.1760314107 0.02757965773 1.06202662 0.8936912417 -0.01589920186 0.4484007061
0.1759044528 0.02788131498 1.06197536 -0.9190672636 -0.3199675977 0.2300784439
0.1758425087 0.02899209969 1.061820388 -0.3145602643 -0.09976838529 -0.943979919
0.1757643819 0.02982106432 1.061984301 0.379532665 -0.1079994217 0.9188531637
0.1757083088 0.03104840964 1.061836123 0.9946143031 -0.03637272865 -0.09705334157
0.1755376309 0.03139797226 1.061836362 -0.9419252276 -0.3271725476 0.07572905719
0.175359726 0.03265338391 1.06182456 -0.9953048229 -0.04017178714 0.08805920929
0.1753314734 0.0333491005 1.061816454 0.8933647275 -0.2162480503 0.3938732445
0.1750510782 0.03456830606 1.061621308 -0.2681030333 -0.09814345837 -0.9583780766
0.1749558002 0.03482001647 1.061721802 -0.9520061612 -0.2004131973 0.231341511
0.1746737659 0.03608079627 1.061581612 -0.9329600334 -0.2937322557 -0.2081034631
0.1745512336 0.03669257835 1.06161356 -0.1348235309 -0.9799932241 -0.1464096904
0.1743956655 0.03801202402 1.061505795 0.7652752399 0.03425899893 -0.6427909732
0.1742059141 0.03838410228 1.061612844 -0.6617339253 0.3127573431 0.6813889742
0.1740766466 0.03905143961 1.061556101 -0.9319475889 0.262300998 0.2503435314
0.1738400757 0.04023284838 1.0614326 -0.5511999726 0.05931533501 -0.8322620988
-0.00406563608 0.1737927049 1.061306596 0.07754720002 -0.990229249 0.1158988774
-0.003418647684 0.173856914 1.06118679 0.7310484052 0.572881043 -0.3706421852
-0.005490936339 0.1738142818 1.061243892 -0.6966705322 -0.07340308279 -0.7136261463
-0.006660363637 0.1738455892 1.061486721 0.1282304525 -0.3449827731 0.929808557
-0.0080198301 0.1737880558 1.061486483 -0.009913411923 -0.9991654754 -0.03962316737
-0.007509889081 0.1738990992 1.061413407 0.3429307044 0.8668400645 -0.3619211018
-0.009327359498 0.1738103181 1.061599731 -0.9563295245 0.09883654863 0.2750729322
-0.0105632823 0.1738358587 1.061747789 -0.5495068431 0.3370700479 0.7644776702
-0.01003301051 0.1737982035 1.061572075 -0.3539825976 -0.6302714348 -0.6909805536
-0.01124301739 0.1737843007 1.06173718 0.8763859272 -0.4806126058 -0.03097067773
-0.01298743673 0.1737864316 1.061873436 0.5696210861 -0.7726238966 0.2803285718
-0.01411991846 0.1738659292 1.062009454 -0.2324000746 0.642585218 0.7301194072
-0.01364337932 0.1738018841 1.061866283 0.9016292691 0.1063992977 -0.419218123
-0.0148204416 0.1737746447 1.062057972 -0.1016066298 -0.5777509809 0.8098640442
-0.01647316106 0.173773244 1.062131047 0.5944420099 -0.7748722434 0.2149688751
-0.01767066121 0.1737672091 1.062239408 -0.2855234146 -0.9505377412 0.1222880036
-0.01711760089 0.1737887859 1.062213421 0.9005207419 0.003401016816 0.4347997308
-0.01835377142 0.1738209426 1.062342882 -0.02275891975 -0.318375349 0.9476915002
-0.01993152127 0.1737844497 1.062398672 0.4940024316 -0.8127579093 0.3088463545
-0.02117336914 0.1737615466 1.062425613 -0.3976151943 -0.916274786 -0.04839985073
-0.02062810957 0.1737726033 1.062490225 0.06652857363 -0.471335113 0.8794414401
-0.0217769593 0.1738094836 1.062571049 0.7544888854 0.3547767103 0.5521594286
-0.02345939539 0.1737611592 1.062542558 0.2373476326 -0.5935320854 -0.7690161467
-0.02449109964 0.1737950444 1.06271708 0.06738063693 -0.9340135455 0.3508254588
-0.02417896129 0.1737901121 1.062699676 -0.2471216172 -0.9002164602 0.3585264087
-0.02524754405 0.1738125831 1.062755108 0.8197520971 0.5712487698 0.04100526124
-0.026893517 0.1737639606 1.062817335 0.39736709 -0.8313129544 -0.3886107206
-0.02784373052 0.1737775803 1.062883496 -0.0176755134 -0.9396691918 -0.3416276574
-0.02762004733 0.1737484783 1.062878132 -0.511130929 -0.8215095401 -0.2527196705
-0.02872327715 0.1737400144 1.062985897 0.4125782847 -0.9086760879 -0.06392990053
-0.03040572442 0.1737713069 1.062992215 -0.02229054086 -0.542737782 -0.8396064043
-0.03133748844 0.1737904549 1.063053608 -0.03161665052 -0.5874086022 -0.8086726069
-0.03111368231 0.1737684458 1.063043237 -0.1090671346 -0.5443099737 -0.8317638636
-0.03236206993 0.1738602817 1.063167095 0.1108515635 0.9344955683 -0.3382748961
-0.0339062959 0.1737308502 1.063253641 0.1773970872 -0.9606345296 -0.2138026804
-0.03482253477 0.1738259494 1.063275218 -0.03162985295 0.4163503051 -0.9086539149
-0.03463494405 0.1737724692 1.063272357 -0.2139319927 -0.5742136836 -0.790260613
-0.03583715856 0.1738259494 1.063514709 0.1249436885 0.6712471247 0.730627358
-0.03743343428 0.173723802 1.063498139 -0.8273355365 -0.5046945214 -0.2465751171
-0.03830879927 0.1738518924 1.063541293 -0.003449452342 0.9392401576 -0.3432433009
-0.03806625307 0.1737191379 1.063521981 -0.2024790198 -0.9609732628 -0.1885010898
-0.03919183463 0.1737153828 1.063614964 0.3694580793 -0.9182083607 -0.1428076774
-0.04089521244 0.1737629324 1.063655853 -0.6069927812 0.1456514299 -0.7812460661
-0.04179389775 0.1738465875 1.063819647 0.01629059948 0.9761551619 0.2164619416
-0.04166380316 0.1737494022 1.063830614 -0.025721604 -0.9386320114 0.3439595699
-0.042724628 0.1737037897 1.063875914 -0.158355549 -0.9863568544 0.04498576745
-0.04440307617 0.1737656146 1.063912988 -0.819214642 0.5246523023 -0.2315756083
-0.04529784992 0.1737540811 1.064105272 0.03715258092 -0.4009570777 0.9153431654
-0.04517549276 0.1737449914 1.063920259 -0.04512556642 -0.5859829187 -0.8090659976
-0.04622263834 0.1736743599 1.064061761 0.02117127553 -0.9976488948 -0.06517907977
-0.04793622717 0.1736486256 1.064214826 -0.6215102673 -0.6022992134 0.5009595752
-0.04882898554 0.1737430096 1.06428957 0.02227440849 0.6631801128 0.7481284142
-0.04854953662 0.1736445278 1.064162016 0.7884070277 -0.4960207343 -0.3638376296
-0.05025936663 0.1736298949 1.064223289 0.2642048895 -0.593367815 -0.7603356838
-0.05142311379 0.1736290008 1.064445376 0.05293377116 -0.3827100396 0.9223508239
-0.05261382088 0.1735750288 1.064443827 0.2121088207 -0.9755992293 0.05670974776
-0.0521151498 0.1736374199 1.064314604 0.4842674136 0.1653782427 -0.8591478467
-0.0538690798 0.173501879 1.064458013 -0.9735575318 0.03000581078 -0.2264627814
-0.05503852665 0.1734431684 1.064573407 -0.8501850367 0.4933339059 0.1838666648
-0.0545322299 0.1734285653 1.064507723 -0.3700585663 -0.864803493 -0.339369446
-0.05573685467 0.1734062433 1.064505458 0.1017283797 0.4750914574 -0.8740363121
-0.05739481002 0.1732053757 1.064733386 -0.8105170727 -0.08235546201 0.5798962116
-0.05851970986 0.1732105464 1.064757347 -0.4783871472 0.8501101732 0.2201328576
-0.05802677199 0.1731585413 1.064646125 0.587010324 -0.004523490556 -0.8095668554
-0.05919126421 0.1730396748 1.064826727 0.7181417942 -0.5413280129 0.4373058081
-0.061019402 0.1728571355 1.06493783 0.1392379403 -0.4300130308 0.8920211792
-0.06220671535 0.1726520211 1.064925432 -0.4436940849 -0.8961346149 -0.008851281367
-0.06166347489 0.1727653146 1.064909935 0.9621323347 0.2655763328 0.06140511483
-0.06281303614 0.1725842953 1.065036893 0.2150680423 -0.3443059623 0.9138922095
-0.06431598961 0.1723445505 1.065037131 0.4460948706 -0.8453794122 0.2938248813
-0.06549862027 0.1721166074 1.064995408 -0.01381983887 -0.979016304 -0.2033127844
-0.06502600014 0.1721964329 1.065058231 -0.4098874927 -0.839183569 0.3574397564
-0.06615688652 0.1720909178 1.065158129 0.2311925292 0.6920290589 0.6838463545
-0.06766280532 0.1717628688 1.065112948 0.6149114966 -0.7029827237 -0.3573503196
-0.06854584068 0.1716559082 1.065207601 0.1474288553 -0.9276243448 0.343187958
-0.06832304597 0.1716498733 1.065190077 -0.4474199414 -0.8410607576 0.3040267825
-0.06953266263 0.1715257466 1.06521976 0.2044043988 0.9584774971 0.1988456994
-0.0710214451 0.1710733026 1.065191627 0.4544527531 -0.8333969116 -0.3145191967
-0.07210381329 0.170807749 1.065210819 0.2454337478 -0.9110290408 -0.3313432038
-0.07176665217 0.1708757579 1.065273881 -0.26110515 -0.9085535407 0.3261204362
-0.07283059508 0.1705894917 1.065300584 0.4982510805 -0.8645914197 0.0650191009
-0.0744170174 0.1702490449 1.065195441 0.2607708275 -0.5224608183 -0.8118087053
-0.07549136877 0.1699903756 1.065212131 0.1385685205 -0.5525456667 -0.8218833208
-0.07511366904 0.1700336188 1.065233231 -0.1743730903 -0.6421014667 -0.7465251684
-0.07637089491 0.1698132008 1.065238357 -0.02890784107 0.4609100223 -0.886975944
-0.0779459551 0.1692392826 1.065348387 0.5108605027 -0.839658916 -0.1843760461
-0.07909923792 0.1689637452 1.065311551 -0.2211326212 0.4161170423 -0.8820130229
-0.07871873677 0.1690024287 1.065367103 -0.1144804284 -0.9116106629 -0.3947912455
-0.08006041497 0.1686806679 1.065460443 -0.1806232333 0.9528952837 0.2436508387
-0.08167188615 0.1680228412 1.065412998 -0.2285825014 -0.5925289392 -0.7724373937
-0.08280018717 0.1677822024 1.065468192 -0.4059746265 0.8564274311 -0.3189301789
-0.08243884891 0.1677941531 1.065479398 0.07656619698 -0.9312859774 -0.3561517
-0.08373964578 0.167374745 1.065649033 0.1738130748 -0.402269572 0.8988705277
-0.08536204696 0.166742295 1.065527201 -0.3736506999 0.3677246869 -0.8515654206
-0.08644344658 0.1663518697 1.065678716 -0.4690758586 0.8490421176 0.2430952042
-0.08604993671 0.1663687527 1.065627337 0.1380824596 -0.9708474278 -0.1959296018
-0.08711761236 0.1659384221 1.065630555 0.4920589924 -0.8387340903 -0.2332446277
-0.08871328831 0.1654089242 1.065693617 -0.7116760015 0.6560228467 -0.2512988746
-0.08971314877 0.1649441123 1.065867782 0.1961948276 -0.3665843606 0.9094632864
-0.08945591003 0.1650195718 1.065738559 0.3193784654 -0.8727049828 -0.3693012595
-0.09042403102 0.1645835191 1.065855742 0.2931029201 -0.9534157515 0.07133707404
-0.09213469923 0.1637554169 1.065866828 -0.624298811 -0.7707055807 0.1275301725
-0.09318710864 0.163304463 1.065964937 -0.3498749733 0.5447996259 0.7620898485
-0.09274725616 0.163435936 1.065808773 0.5470097065 -0.2430186719 -0.8010756969
-0.09431060404 0.1625908166 1.065888166 0.7538233399 -0.5235977769 -0.3969832361
-0.09538706392 0.1619896144 1.06600523 0.5003463626 -0.4434782565 0.7436266541
-0.09644155949 0.1614129245 1.066013217 0.5559006929 -0.8293975592 0.05544387922
-0.09599853307 0.1617340744 1.065909863 0.4306051731 0.8581649065 -0.2795213759
-0.09752288461 0.1608594209 1.065916181 -0.5565052032 -0.3276791871 -0.7634974122
-0.09853807837 0.1603308916 1.066094875 0.2561661601 -0.2979212105 0.9195770621
-0.09969422966 0.1596205235 1.066017747 0.4802328944 -0.8718929291 -0.0958071202
-0.09929735214 0.1599734277 1.065978885 -0.1150620505 0.955904603 -0.2701981068
-0.1008544788 0.1589919031 1.066061139 -0.9036078453 -0.3990360796 0.1557659656
-0.1018903106 0.1583416015 1.066139579 -0.6932195425 -0.103762567 0.7132179737
-0.1014420688 0.1586068422 1.065992713 0.06180609018 -0.6484596729 -0.7587359548
-0.1023903266 0.1579473019 1.066087008 0.9934515953 0.09678073227 0.06072440743
-0.1038346738 0.1569781601 1.066121578 0.8789777756 -0.3593830168 0.3134357929
-0.1048606485 0.1563805789 1.066194773 -0.5691882372 0.3567937315 0.740758419
-0.1044040844 0.1566176116 1.066076756 0.7151536345 0.6309552789 -0.3007499874
-0.105423741 0.1558921635 1.066196322 0.18781358 -0.6297277212 0.7537699938
-0.1069065109 0.1548959911 1.066170216 0.8956151009 -0.3586243391 0.2631771266
-0.1079837605 0.1541626155 1.066205859 0.3096143305 -0.9504112601 0.02928172238
-0.1074990928 0.154513672 1.066214442 0.7017408013 0.4400083125 0.5603147149
-0.1086237952 0.1537504643 1.066266894 0.1671138704 -0.3617807627 0.9171628356
-0.109905012 0.1527209282 1.066212773 0.8675193787 -0.3770197034 0.3244476318
-0.1109154075 0.1519182026 1.066159368 0.2555700541 -0.956441164 -0.1410822421
-0.1104756445 0.1522648633 1.066257596 0.3124606907 -0.4161524475 0.8539235592
-0.1114533022 0.1515576243 1.066268563 0.3497005105 0.6754335165 0.6492296457
-0.112814784 0.1503923535 1.066123962 0.5875415802 -0.2548523843 -0.768013835
-0.1136902198 0.1496963054 1.066230297 0.6376766562 -0.6977185607 0.326431036
-0.1134315208 0.1499070525 1.066233397 0.3910969198 -0.8703769445 0.2991439402
-0.1143204421 0.1491904259 1.066218972 0.2367383242 0.9573503733 0.1656358689
-0.1156284586 0.1480299681 1.066167712 0.8465217948 -0.3757911325 -0.3770701885
-0.1164094135 0.1473910511 1.066167712 0.6006111503 -0.7041308284 -0.3787692487
-0.116209738 0.1475204974 1.066177011 0.1700527519 -0.9220299125 -0.3477684259
-0.117098853 0.1467621326 1.066206098 0.8961256742 -0.4407674968 -0.05179582909
-0.118474327 0.1455972046 1.066103697 0.3955926895 -0.3198227584 -0.8609411716
-0.119185634 0.1449114382 1.066084862 0.4170998037 -0.3703363538 -0.8299871087
-0.1190038398 0.1450624913 1.066092014 0.3293577433 -0.3899712563 -0.8599104285
-0.1200000271 0.1441912204 1.066117048 -0.5773553848 0.7608866096 -0.2961624563
-0.1210564151 0.1429488659 1.066073895 0.806882143 -0.5455654263 -0.2264941633
-0.1218123883 0.1423273534 1.066022992 -0.2882775068 0.3466598392 -0.8925933838
-0.121633023 0.1424310058 1.066033602 0.289650023 -0.4816841781 -0.827093184
-0.1225917488 0.1415385455 1.066174269 -0.4126776159 0.4938889444 0.7653566599
-0.1237186715 0.14027147 1.066023231 -0.2014126331 -0.9162641764 -0.3462556899
-0.124454096 0.1396724433 1.065991521 -0.6830078363 0.6545999646 -0.3240358233
-0.124186337 0.1397703141 1.065991044 0.5912050605 -0.7730145454 -0.2300549001
-0.1249705404 0.1388994008 1.065982938 0.9302797318 -0.3449580371 -0.1248338968
-0.1261910051 0.1376265734 1.065873861 -0.4727905393 -0.2736616135 -0.8376027346
-0.1268863678 0.1369810551 1.065957665 -0.7214445472 0.6496217251 0.2398113161
-0.1267247051 0.1370140612 1.065977812 0.6635539532 -0.674710691 0.3232052922
-0.1274349242 0.1361024976 1.065917611 0.6807702184 -0.732257843 0.01871815324
-0.1285909861 0.1347081363 1.065775871 -0.9066411257 -0.2770954072 -0.3181509972
-0.129177317 0.133946225 1.065870643 0.2819944918 -0.3020091057 0.9106424451
-0.1290815324 0.134053722 1.065701962 0.4727192521 -0.3272130787 -0.8182102442
-0.1297072619 0.1331576556 1.065723777 0.7994671464 -0.5988770127 -0.04688947648
-0.1307775527 0.1317661554 1.0656991 0.05462519452 -0.8925043344 0.4477188289
-0.131419152 0.131108582 1.065679908 -0.5619132519 0.3754526973 0.7370812893
-0.131156221 0.1312791109 1.065583348 0.9038051963 0.3257645071 -0.2775132358
-0.1322256774 0.1299041808 1.065467834 0.6833216548 -0.1171439588 -0.7206586003
-0.133075282 0.1288271099 1.0655545 0.2623995841 -0.2477936 0.9326010346
-0.1339006573 0.1276788861 1.06542325 0.919565022 -0.3921321034 0.0251514446
-0.1335858107 0.1281858236 1.065346956 0.1021683589 0.435636878 -0.8943052888
-0.1346457154 0.126496166 1.065325141 -0.5795202851 -0.7827005386 -0.2270154357
-0.1353437006 0.1253912151 1.065356255 -0.9067553878 -0.3728205264 0.1969760805
-0.1350085884 0.1258453578 1.065329075 0.557358861 -0.7784045339 -0.2888555229
-0.1357561052 0.1247208938 1.065239429 -0.2666418254 0.3506300449 -0.8977531195
-0.1366511583 0.1230908558 1.065352201 -0.417991519 -0.6696916819 0.6138371229
-0.1373709887 0.1220575869 1.065292954 -0.9733856916 0.1283981651 0.1898261756
-0.1370128989 0.1224746481 1.065221548 0.3562728763 0.4541026652 -0.8166152239
-0.1376321018 0.1213910654 1.065320492 0.8393959999 0.2911969125 0.4589321911
-0.1385077983 0.1199296564 1.065306425 0.3996685445 -0.1597137302 0.9026387334
-0.1391111165 0.118878603 1.065224051 0.4132226408 -0.9087262154 0.05885238945
-0.1388363242 0.1193924695 1.06523931 0.4017566442 0.9152178764 0.03110908903
-0.1394657195 0.1183482483 1.065296888 0.3229669333 -0.0450601615 0.9453368783
-0.1402811706 0.1169714853 1.065208793 0.9159319401 -0.2097335309 0.3421703279
-0.1408914626 0.1158604547 1.065100431 0.7653418183 -0.6265801787 -0.1471361518
-0.140640378 0.1162998974 1.065189838 0.3693192601 -0.8286829591 0.4205804467
-0.1413143724 0.1153177842 1.065218329 -0.4456728697 0.6070325971 0.6579416394
-0.1420502514 0.113838993 1.065082431 0.9510042071 0.03715570644 -0.3069371879
-0.1425371319 0.1130306646 1.065119267 0.7923288941 -0.4554391205 0.4059435427
-0.1423884183 0.1132148802 1.06511724 0.3843628168 -0.8562044501 0.345223397
-0.1430608034 0.1122141704 1.065081835 -0.5856209397 0.7985317707 0.1392668784
-0.1437443197 0.1107853949 1.064992785 0.927488327 -0.2361796647 -0.2898011208
-0.1442882568 0.1097925082 1.064965248 0.8533325195 -0.4305996895 -0.2939516604
-0.1441085637 0.1100973412 1.065042377 0.4696467817 -0.7916324735 0.3908325434
-0.144624725 0.1091049761 1.065024257 0.9713387489 -0.2165839374 0.09794097394
-0.1454568654 0.1076720804 1.06485033 0.6057073474 -0.14680776 -0.7820268273
-0.1459591687 0.1066213474 1.064825177 0.5549075007 -0.2075031698 -0.8056178093
-0.1457576752 0.1069538295 1.06486392 0.4325134754 -0.5232640505 -0.7342526317
-0.1463680863 0.105806157 1.064806581 -0.3372131586 0.2640924752 -0.9036273956
-0.1469201148 0.1043473408 1.064834476 0.9745839834 -0.1642554253 -0.152335912
-0.1474512368 0.1033925787 1.064731479 -0.4031766355 0.1368289739 -0.9048351049
-0.1472373903 0.1036778837 1.064810157 0.6089816689 -0.7230314612 -0.3261390924
-0.147856608 0.1025783792 1.064825535 -0.8379901648 0.5123140812 0.1879004389
-0.1483935416 0.1010695621 1.064694524 0.3128852844 -0.5915644169 -0.7430708408
-0.1489363909 0.1001620963 1.064683199 -0.8900476098 0.2771447301 -0.3619474769
-0.1487140059 0.1004134342 1.064717293 0.7496508956 -0.5918724537 -0.2961597741
-0.1492522806 0.09929879755 1.06480515 0.3200064301 -0.2031653821 0.9253755212
-0.149892509 0.09790983051 1.064575434 -0.4618070722 0.01228585746 -0.8868953586
-0.1503982991 0.09691109508 1.064653158 -0.9423393011 0.2830416262 0.1785608083
-0.1501231045 0.09719558805 1.064632535 0.7779280543 -0.6103677154 -0.1492625475
-0.1505944133 0.09614679217 1.06456697 0.9513460994 -0.2593851089 -0.1663131565
-0.1513813138 0.0946611166 1.064522147 -0.9465092421 -0.01173787564 -0.322463274
-0.1517920047 0.09363412857 1.06463182 0.3196808696 -0.1572768241 0.9343812466
-0.1516498923 0.0938667357 1.06452167 0.8613196015 -0.4005351663 -0.3125703037
-0.1520535648 0.0928824693 1.064576507 0.8623456955 -0.4890760481 0.1310130656
-0.15277192 0.09129276127 1.064483047 -0.06664619595 -0.9918223023 0.1088429242
-0.1532889605 0.09039320797 1.064515114 -0.6821026802 0.197488904 0.7040839195
-0.1530272216 0.09072675556 1.064389348 0.6589204073 0.170097217 -0.7327284217
-0.153719753 0.08918832242 1.064382076 0.9476206303 0.0484825857 -0.3156970441
-0.1542157829 0.08806791157 1.064442396 0.5967610478 -0.05284898356 0.8006767631
-0.1546999961 0.08698020875 1.064394116 0.9363324046 -0.3238070607 0.1357598305
-0.1545358151 0.08749976009 1.064310789 -0.1494975239 0.945625186 -0.2888658643
-0.1552105695 0.08589490503 1.064237952 -0.1720405668 -0.5947310925 -0.7853006124
-0.1557008177 0.08488959074 1.064365268 0.3010763824 -0.09877069294 0.9484710693
-0.1561619639 0.08372324705 1.064233065 0.908362031 -0.4174891114 -0.02410575561
-0.1560643464 0.08420848846 1.064208508 -0.6182885766 0.7220077515 -0.3105223477
-0.1566853225 0.08261729032 1.064217806 -0.4979513288 -0.862503171 0.09018214792
-0.1571876705 0.08156757802 1.064244032 -0.5908944011 -0.4633206725 0.6604375243
-0.1569380164 0.08202404529 1.064121366 0.4553256333 -0.514724791 -0.7264550924
-0.1573961973 0.08097711951 1.064167976 0.7831216455 0.6079767346 0.1307087839
-0.1581037492 0.0794133395 1.064128637 0.9071676135 0.1575648785 0.3901540041
-0.1586583853 0.07837873697 1.064145923 -0.7332527637 -0.006583358161 0.6799242496
-0.1583892107 0.07881548256 1.064053655 0.3010596037 0.9155073166 -0.2668510079
-0.158870399 0.07768625021 1.064123988 0.4211558104 -0.4381380081 0.7941428423
-0.1595622897 0.07614715397 1.064025164 0.9198474288 0.1919308305 0.3421161175
-0.1600634754 0.07502219081 1.064008236 0.7477964163 -0.6584255695 0.08530056477
-0.1598514616 0.07554538548 1.064039588 0.3222738504 0.7486445308 0.5793712139
-0.1604055017 0.07439694554 1.064038992 0.2393843383 -0.2390875667 0.9410272837
-0.1610303819 0.07292063534 1.063929439 0.9130266309 0.08233999461 0.399502933
-0.1615266353 0.07176454365 1.063831449 0.680431366 -0.7275313139 -0.08781459183
-0.1613156646 0.07226476818 1.063949227 0.4025607407 -0.225968942 0.8870641589
-0.1618340462 0.07120606303 1.063915253 -0.05479647592 0.7621350288 0.6450949907
-0.1624871343 0.06963339448 1.063721418 0.6903110743 0.04938684031 -0.7218251824
-0.1629628688 0.06866857409 1.06378901 0.8529379368 -0.3549892306 0.3827265799
-0.1628275067 0.06895677745 1.063803673 0.6994508505 -0.6303220987 0.3368418515
-0.1632956862 0.067973122 1.063749075 -0.1952082217 0.9669800401 0.1638394892
-0.1639390737 0.0664267987 1.063644052 0.9529341459 0.04130832106 -0.3003498912
-0.1643511951 0.06554694474 1.063612342 0.8709157705 -0.3748128116 -0.317838341
-0.1642316133 0.06574181467 1.063630819 0.5575919151 -0.7677045465 -0.3157860339
-0.1646894068 0.06471222639 1.063624859 0.9997175932 -0.002829475561 0.0235918574
-0.1654152572 0.06317308545 1.063465834 0.5469790697 -0.1781925857 -0.8179616928
-0.1658239812 0.06231448427 1.063435078 0.5758380294 -0.2098272294 -0.7901790738
-0.1657103598 0.06251301616 1.063447475 0.5019634962 -0.2539076507 -0.8267790079
-0.1663190424 0.06137731671 1.063441753 -0.7897509336 0.505833447 -0.3470244408
-0.166828528 0.05989376083 1.063372135 0.9655020833 -0.2106373906 -0.1530930847
-0.1672848612 0.05908765271 1.06329596 -0.3318465352 0.2139826715 -0.9187433124
-0.167160511 0.05923867598 1.06331408 0.4918130636 -0.355815053 -0.7946794033
-0.1677154452 0.0581209138 1.06342876 -0.6167869568 0.3218885064 0.7183048129
-0.1682595164 0.05662035942 1.063252211 0.1564660966 -0.925526619 -0.3448461294
-0.1687315255 0.05586256832 1.063203216 -0.8347942233 0.4015077353 -0.3767095804
-0.1685112715 0.05603400618 1.063213229 0.8136401176 -0.5536842942 -0.1772662103
-0.1689678878 0.05498666689 1.06319344 0.9982892275 -0.02842308208 -0.05109653249
-0.1696890444 0.05320524052 1.063081026 -0.2827810347 -0.3806056976 -0.8804398179
-0.1701223105 0.05220004544 1.063159227 -0.9263977408 0.3130972385 0.2091826797
-0.1699823439 0.05230979249 1.063182831 0.8687316775 -0.3494242132 0.3510100842
-0.1703448594 0.05110744014 1.063131332 0.8789884448 -0.4752994478 0.03833563253
-0.1710414588 0.04925843701 1.063013554 -0.7571274638 -0.5071668029 -0.411752224
-0.1713894606 0.04824431613 1.063122153 0.3518574536 -0.1625965089 0.9218235612
-0.1713178009 0.04841086641 1.062951326 0.5696249604 -0.1803044677 -0.8018838167
-0.1716547012 0.04725065082 1.06300199 0.9521891475 -0.3030131161 -0.03897375613
-0.1722697914 0.04538384452 1.063022494 0.3642090261 -0.7671738863 0.5280114412
-0.1726277024 0.04447622225 1.063031077 -0.6636907458 0.1467849612 0.7334635854
-0.1724557877 0.04472780228 1.062926292 0.690648675 0.6351749897 -0.3457705379
-0.1728931814 0.04303104803 1.062866092 0.6613345146 0.1358705759 -0.7376826406
-0.1732041985 0.04187853262 1.063004375 0.3585604727 -0.09675446153 0.9284787774
-0.1734638363 0.04069727659 1.062918067 0.9956118464 -0.08165181428 0.04571573809
-0.1733910292 0.04119605571 1.06282413 -0.003633960383 0.5369485021 -0.8436071277
-0.17379646 0.03946637362 1.062853456 -0.3277917504 -0.9019444585 -0.2811560333
-0.1741009504 0.03818155453 1.062871456 -0.7359098196 -0.6530454159 0.1787972599
-0.1739323288 0.03872206435 1.062846303 0.7738310099 -0.5440072417 -0.3244096339
-0.1742739975 0.03741823137 1.062751174 -0.3869316578 0.2582499683 -0.8852066994
-0.1746391952 0.0353454873 1.062783718 -0.1591698676 -0.7493863702 0.6427169442
-0.003311230568 0.1739100516 1.061257958 -0.4070408046 0.891192019 0.2002361268
-0.002824965632 0.1738161147 1.061150551 0.5648934245 -0.06727938354 -0.8224164844
-0.001621239702 0.1737963706 1.061267138 0.6775018573 -0.5808246732 0.4512582421
-0.000971634523 0.1738071889 1.061309218 0.1182313338 -0.3941594362 0.9114053845
0.0001777576399 0.1737941056 1.061248183 -0.5718194246 -0.8199012876 0.02800808474
0.0007659807452 0.1738192588 1.061223149 0.9907712936 0.1226169392 0.05777007341
0.001904294826 0.1738293171 1.06130445 0.1696805656 -0.3302319348 0.9285231829
0.002676123753 0.1738337427 1.061261892 0.2653670311 -0.8919453621 0.3660789728
0.00385330501 0.1737962812 1.061181545 -0.1452729851 -0.9757513404 -0.1637224704
0.004401147831 0.1738025844 1.061236382 -0.4767250419 -0.777910471 0.4093756974
0.005653981585 0.1738833487 1.061288714 0.3256819248 0.6742813587 0.6627790332
0.006399371661 0.1737981439 1.061205745 0.4606488347 -0.8204283118 -0.338673681
0.007840368897 0.1738378257 1.061245322 0.007049942855 -0.9195621014 0.3928812742
0.008076566271 0.1737958938 1.061223865 -0.5441720486 -0.7599052787 0.3555570245
0.009254623204 0.1739072502 1.061213851 0.4251082838 0.8935951591 0.144120574
0.01004430745 0.1738238931 1.061177611 0.215901956 -0.9236103296 -0.3167495131
0.01132153347 0.1738268286 1.061168313 0.007497692015 -0.9503185749 -0.3111887574
0.01169727556 0.173814252 1.061217308 -0.4239478707 -0.8134800196 0.3981437683
0.01301249582 0.1737921387 1.061218858 0.2673214078 -0.9604822993 0.07754287869
0.01375520322 0.1738383174 1.061108828 0.09055466205 -0.5891791582 -0.8029120564
0.01503496151 0.1738451272 1.061098099 -0.02484414354 -0.6042301655 -0.7964224219
0.01542964112 0.173797518 1.061105251 -0.3498193324 -0.6089633703 -0.7118918896
0.01652348228 0.1738849133 1.06108284 0.03287708387 0.4155948758 -0.9089554548
0.01735740714 0.1737914681 1.061165571 0.2340922356 -0.9572978616 -0.1696519852
0.01866029575 0.1738856733 1.061078906 -0.1152056083 0.4109790027 -0.9043361545
0.01902455464 0.1738078594 1.061130643 -0.4202415645 -0.8551374674 -0.3035407662
0.02018554881 0.1739229709 1.061178803 0.1336122155 0.9747335315 0.1790037751
0.02098523453 0.1737951338 1.061109662 -0.4558088481 -0.5302718878 -0.7148776054
0.02235838771 0.1739191264 1.061115623 -0.1336107701 0.9266321659 -0.3514271677
0.02269247174 0.1738192439 1.061124444 -0.2461421043 -0.9269615412 -0.2831190228
0.02387559414 0.1738538593 1.061244726 0.02926717699 -0.3590704799 0.9328514934
0.02473272197 0.1738691777 1.061072111 -0.2494248897 0.4221483171 -0.8715376854
0.02603575401 0.1739217788 1.061171532 -0.1097582281 0.9758813977 0.1887025237
0.0264161434 0.1737872511 1.061121225 -0.238524124 -0.9627539515 -0.1273228079
0.0276738815 0.1737881452 1.06108129 0.1359236836 -0.9747818112 -0.1769895405
0.0283911936 0.1738978028 1.061105609 -0.4165923595 0.8602008224 -0.294118017
0.02970686182 0.1738525182 1.061234951 0.03480594978 -0.3698201478 0.9284511209
0.02997424081 0.1738175601 1.061107278 -0.03669563681 -0.9505675435 -0.3083420992
0.0313298367 0.1737831384 1.061181545 -0.07836893201 -0.9866961837 0.1424390376
0.03199055046 0.1737868488 1.061163306 -0.9111587405 -0.3592778444 0.2017655075
0.03340185434 0.1738900244 1.061210752 -0.0466000475 0.6798940897 0.7318282127
0.03381797671 0.173787564 1.061052918 0.3499234915 -0.5297445655 -0.7726086974
0.03454425931 0.1737892181 1.061115384 0.3885209262 -0.8499484062 -0.3558641374
0.03574173898 0.1737834662 1.061206102 0.2681663334 -0.5638077855 0.7811579108
0.03694907576 0.1737794429 1.061187148 0.09684548527 -0.9865799546 0.1314568669
0.03748896718 0.1738418788 1.061060071 0.7634977698 0.5247405171 -0.3764553666
0.03813685104 0.1737999767 1.061062098 -0.6781409979 -0.08774325997 -0.7296751738
0.03943662718 0.1738358587 1.061204672 0.1363056451 -0.3646043539 0.9211322069
0.04060863331 0.1737778336 1.0611099 -0.01043254882 -0.9997338057 -0.02058009058
0.04111749306 0.173887372 1.061042547 0.3567578495 0.8602420688 -0.3642901182
0.04184187576 0.1738020033 1.061119676 -0.9734665751 0.1020822227 0.2047974467
0.0431407094 0.1738304198 1.061163664 -0.5620087981 0.3506685793 0.7491179109
0.04365907609 0.1737895459 1.06099546 -0.352561295 -0.6280855536 -0.6936922669
0.0449222587 0.1737789214 1.061054707 0.8874767423 -0.4599466324 0.02888013236
0.04559656605 0.1737837642 1.061082006 0.5479412079 -0.7664657235 0.3350981474
0.0468271561 0.1738659739 1.06111455 -0.2132769674 0.6287340522 0.7478010654
0.04732825607 0.1737983227 1.060976624 0.9206252098 0.1005466133 -0.3772793114
0.04852993041 0.1737732887 1.061067104 -0.1620435715 -0.5634477735 0.8101040125
0.04935210198 0.1737528145 1.06103754 0.4994466305 -0.8123757839 0.3009960651
0.05072885379 0.173714906 1.061051488 -0.2687799335 -0.954028368 0.1326170564
0.05135017261 0.1737052798 1.061049461 0.8238133788 -0.03670275211 0.5656715035
0.05258113891 0.1736595333 1.061119437 -0.09977286309 -0.3265937269 0.9398839474
0.05344163626 0.1735677421 1.061101675 0.3674402237 -0.8195393085 0.4397078156
0.05468953028 0.1734642982 1.061078191 -0.4227114916 -0.9005027413 -0.1020291448
0.05529538915 0.1734372824 1.061168075 -0.04618685693 -0.4651477933 0.8840273023
0.05663463473 0.1733882129 1.061203957 0.6760382652 0.3287915885 0.6594455242
0.05738529563 0.1732895672 1.061107755 0.2398915142 -0.6432151794 -0.7271356583
0.0587477237 0.173184827 1.061246157 -0.07356667519 -0.916175127 0.3939684331
0.05905999616 0.1731388867 1.061243534 -0.3948279023 -0.8586558104 0.3268350363
0.0603161566 0.1730000526 1.061259508 0.8722198606 0.4546790421 0.1802759618
0.06098863855 0.1728655845 1.061256051 0.3070783019 -0.9039447904 -0.2976353467
0.06235895306 0.1727031916 1.061288118 -0.1236237213 -0.938472569 -0.3224692643
0.06257774681 0.1726453006 1.061294198 -0.5821945667 -0.7437000275 -0.3285720944
0.06379205734 0.172483176 1.061360478 0.2854883075 -0.9578884244 0.03075836413
0.0644492507 0.1724297255 1.061304927 -0.04227603599 -0.5743842721 -0.8174933791
0.06584233791 0.1722699255 1.06134069 -0.06419419497 -0.5996850729 -0.7976571918
0.06608175486 0.1722127646 1.061348319 -0.09184929729 -0.5209847689 -0.8486098647
0.06718416512 0.1720761508 1.061432958 0.3169732094 0.8903209567 -0.3268891573
0.06793154031 0.1717880517 1.061466336 -0.01820438355 -0.9805909395 -0.1952177137
0.06935375929 0.1715863794 1.061462522 0.09917099774 0.4064520001 -0.9082741737
0.0695284009 0.1714947224 1.061468124 -0.2776173353 -0.5114524364 -0.8132312298
0.07063678652 0.1713173538 1.061673641 0.2296221852 0.6458369493 0.7281265855
0.07135370374 0.1710644215 1.061602116 -0.8924608827 -0.3324462175 -0.3049477041
0.07282184809 0.1708866954 1.061624169 0.2047136873 0.9146088958 -0.348687619
0.0730355233 0.1707057357 1.061615825 -0.3836032152 -0.9029510021 -0.193721354
0.0742572844 0.1704383641 1.06168139 0.1017486751 -0.9864994884 -0.128319785
0.07488218695 0.1703093648 1.061660647 -0.5111981034 0.3027472496 -0.8043758273
0.07629522681 0.1699896455 1.061786771 0.2803850174 0.9344431162 0.2195455432
0.07639432698 0.1698598117 1.061801434 -0.2959300578 -0.8964956999 0.3297284544
0.07761891186 0.1694603711 1.061803699 -0.4320557714 -0.9010074139 0.03890443593
0.07827328146 0.1693378091 1.061778784 -0.6307587028 0.7313607335 -0.2593356073
0.07968366146 0.1689314097 1.061933637 -0.10790205 -0.3831148744 0.9173768163
0.07980314642 0.1688849628 1.061751366 -0.1943431646 -0.5548923612 -0.8089036345
0.08104575425 0.1684685498 1.061854482 -0.2666755021 -0.9618885517 -0.06045381725
0.08167365938 0.1682843268 1.061956048 -0.7377744913 -0.4242335856 0.5250854492
0.08307689428 0.167901352 1.062000155 0.2496715337 0.6098390222 0.7521705031
0.08328866959 0.167710945 1.061878085 0.5627687573 -0.7483486533 -0.3510918319
0.08386525512 0.1674967408 1.061883807 0.05350933969 -0.6451356411 -0.7621919513
0.08492910117 0.167099297 1.062062025 -0.04751271755 -0.4029724598 0.9139779806
0.085977301 0.1666506976 1.062025189 -0.2124975771 -0.9770775437 -0.0128175579
0.08646950126 0.1665182859 1.061913729 0.524602294 0.02020614408 -0.8511075974
0.08709529787 0.1662410945 1.061997056 -0.8514820933 0.4605858028 -0.2506771088
0.0883089304 0.1658042073 1.062067866 -0.5301373601 0.8231238127 0.2035229802
0.08879609406 0.1655581594 1.062007546 -0.6824559569 -0.6249833107 -0.3790114224
0.09001195431 0.1651657373 1.061963558 0.2554613352 0.4086773694 -0.8761976957
0.09063048661 0.164762184 1.062129498 -0.7368293405 0.3488428593 0.5791295767
0.09176627547 0.1642666459 1.062103868 0.04632274061 0.9679764509 0.2467302084
0.09215120226 0.1639626324 1.061994314 0.5043998957 -0.2903725803 -0.8131817579
0.09318557382 0.1633794308 1.062120676 0.3072878122 -0.8546222448 0.4185628593
0.09375484288 0.1630846113 1.062169433 -0.1220226586 -0.449837476 0.8847353458
0.09475344419 0.1625409722 1.0621171 -0.8915424943 -0.4513544738 -0.03782906383
0.09527919441 0.1622905433 1.062098622 0.9279141426 -0.3633900285 0.0832047537
0.0962721929 0.1617657393 1.062190771 -0.04269468039 -0.4217479527 0.9057073593
0.09694479406 0.1614161581 1.062150002 -0.1543705463 -0.9457478523 0.2858859301
0.09788474441 0.160838291 1.062066317 -0.6397545338 -0.7412831187 -0.2030108422
0.09831801802 0.1605791897 1.062122703 -0.8380063176 -0.4001590908 0.3709691167
0.09934824705 0.1600437611 1.062179923 0.6187552214 0.3832665384 0.6857469082
0.0999289602 0.1595944315 1.062097669 -0.01446695626 -0.9279996157 -0.3723002374
0.1011552513 0.158891812 1.062150002 -0.4836264551 -0.8026604056 0.3490584195
0.1013314426 0.1587364674 1.062127948 -0.8711403608 -0.3722037077 0.3202792406
0.1023754478 0.1582311988 1.06213069 0.8285883665 0.5318983197 0.1747155786
0.1029939428 0.1577587128 1.062096119 -0.2837609053 -0.8913937211 -0.3534074724
0.1040499955 0.1571176946 1.062098265 -0.4824256897 -0.7996957302 -0.3574242294
0.1043550819 0.1569124609 1.062147021 -0.8098059893 -0.4590919018 0.365306586
0.1053585336 0.1561732739 1.062124729 -0.3276502788 -0.9446384311 0.01742113568
0.1059526801 0.1558122784 1.062003136 -0.254692018 -0.4914216697 -0.8328484893
0.106958352 0.1551031619 1.061971426 -0.3619099557 -0.437851876 -0.8229864836
0.107242614 0.1548412889 1.061970115 -0.6379997134 -0.2478114516 -0.7290718555
0.1081576645 0.1542964429 1.061933875 0.2829935849 0.3634338975 -0.8875980377
0.1087625399 0.1537448317 1.061999202 -0.3584269285 -0.9067980051 -0.2219177634
0.1098469496 0.1530911922 1.061896324 0.1609257758 0.4512930214 -0.877745688
0.1100847721 0.1528221667 1.061938286 -0.847063303 -0.4192050099 -0.3267278373
0.1110543907 0.1522660702 1.06197679 0.6781070232 0.6987566948 0.2278375477
0.1115941033 0.1516671926 1.061872602 -0.6974927187 -0.05568442121 -0.714425087
0.112673074 0.1509222984 1.061841726 0.4918299019 0.8201676011 -0.292281419
0.1128520891 0.150641039 1.06183517 -0.7924621701 -0.5248522758 -0.310698837
0.1137431413 0.1499296129 1.061922312 -0.2128374428 -0.347299844 0.9132815599
0.1143789291 0.1494273245 1.061722398 0.07765759528 0.5463064909 -0.8339775205
0.1153691635 0.1486574709 1.061785936 0.5386824012 0.8068771362 0.2424266636
0.1155607849 0.1483244598 1.061716557 -0.805404067 -0.5702369809 -0.1617224067
0.1164837033 0.1475526989 1.061638236 -0.5158531666 -0.8232142925 -0.2370945066
0.1170943454 0.1471811086 1.061643362 0.2505640686 0.9523932338 -0.173680231
0.1180154309 0.146251604 1.061720848 -0.2378257066 -0.3371391296 0.9109204412
0.1181667894 0.1460580975 1.061579823 -0.7016184926 -0.6268113256 -0.3388790786
0.1190635636 0.1451071352 1.061601877 -0.7574334741 -0.6438570619 0.1083632931
0.1195052415 0.1446712166 1.061560035 -0.8842043281 0.3861010671 0.2628851831
0.1205196753 0.1437986344 1.061561227 0.4490536451 0.4745907187 0.7570432425
0.1207177117 0.1434646696 1.061382651 -0.1289906204 -0.576626718 -0.8067608476
0.1212050617 0.1429754198 1.061419725 -0.302411288 -0.8559186459 -0.419464916
0.1220120862 0.1421530247 1.061467886 -0.1963058114 -0.6470845342 0.7367126942
0.1228512153 0.1413094401 1.06139648 -0.630433023 -0.7719045281 0.08196102083
0.123263523 0.140992552 1.061249137 0.8756399751 -0.1834082603 -0.4467842281
0.1237107441 0.1404427141 1.061226249 -0.5550774336 0.4923794568 -0.6704114676
0.1247048825 0.1394021362 1.061323285 -0.2019522935 -0.3977961838 0.8949711919
0.1254824251 0.1384686828 1.061196566 -0.74478513 -0.6657161117 -0.04601490125
0.1259104162 0.1381650716 1.061121106 0.8494728208 0.340981096 -0.4026510119
0.1263635606 0.1375393569 1.06117475 -0.5508773923 0.7342192531 0.3968075514
0.1272789389 0.1365382671 1.06125927 -0.1913613677 0.5403285623 0.8194058537
0.1276148707 0.1361294538 1.061074257 -0.609234035 -0.04782743007 -0.7915468216
0.1284843981 0.1350395083 1.06105125 0.1339135766 -0.9808477163 0.1414388865
0.1289508343 0.1344386339 1.061063886 -0.3344807923 -0.8647229671 0.3746688366
0.129792884 0.1334490925 1.061083674 0.3484555781 0.5362059474 0.7688055038
0.1300474107 0.1330004483 1.060939431 0.6572597027 -0.7114768028 -0.2486168742
0.1306983978 0.132062614 1.061018109 -0.6195233464 -0.1827519089 0.7634085417
0.1311062276 0.1315081567 1.060980201 -0.276086539 -0.9075604081 0.3164023757
0.1317756623 0.1305857897 1.060976624 -0.9427335858 -0.3319011331 0.03309093043
0.1321371049 0.1301303953 1.060948491 0.5281965733 -0.7347742319 0.425576508
0.1328497678 0.1292160749 1.060963869 -0.2943747342 -0.1723668426 0.9400177002
